# .PCD v0.7 - Point Cloud Data file format
VERSION 0.7
FIELDS x y z rgb
SIZE 4 4 4 4
TYPE F F F F
COUNT 1 1 1 1
WIDTH 976
HEIGHT 1
VIEWPOINT 0 0 0 1 0 0 0
POINTS 976
DATA ascii
1.3055784 -0.42827633 -0.0072479248 1.7770995e-38
1.3183051 -0.43097302 -0.027388215 1.8231975e-38
1.3124598 -0.4259114 -0.019597292 1.8232335e-38
1.3253766 -0.42859831 -0.040057182 1.8232336e-38
1.3398583 -0.4237352 -0.066001892 1.7955751e-38
1.3393326 -0.42081314 -0.066242695 1.8232339e-38
1.330474 -0.41459027 -0.05388248 1.8416729e-38
1.332714 -0.41277811 -0.058300257 1.8693317e-38
1.2887423 -0.37469193 0.00030493736 1.8694032e-38
1.2856958 -0.3709546 0.0039460659 1.8233055e-38
1.285194 -0.36816606 0.0037162304 1.8233055e-38
1.2821642 -0.36445478 0.0073395967 1.8508925e-38
1.2841907 -0.36258897 0.0032566786 1.7956111e-38
1.2786506 -0.35798773 0.010715842 1.8140504e-38
1.280663 -0.35611024 0.0066518784 1.8140864e-38
1.2776523 -0.35243875 0.010258555 1.8048308e-38
1.2821839 -0.35143468 0.0023374557 1.8048308e-38
1.2791617 -0.34776574 0.0059642792 1.8232339e-38
1.2811805 -0.34585759 0.0018779039 1.7679165e-38
1.2832096 -0.34393969 -0.0022293329 1.777172e-38
1.2827066 -0.34114406 -0.0024597645 1.7679164e-38
1.2822037 -0.33834836 -0.0026900768 1.7494774e-38
1.2817006 -0.33555272 -0.0029205084 1.7218546e-38
1.2811977 -0.33275709 -0.0031508207 1.740258e-38
1.2781702 -0.32912621 0.00049901009 1.7586973e-38
1.2776686 -0.32633767 0.00026917458 1.7125277e-38
1.2796887 -0.32437006 -0.0038419962 1.6940168e-38
1.2766652 -0.32076052 -0.00019037724 1.6294083e-38
1.2812148 -0.3195897 -0.0082051754 1.5832746e-38
1.2781799 -0.31598315 -0.0045331717 1.5648356e-38
1.2776768 -0.31318745 -0.0047636032 1.55558e-38
1.2721556 -0.30882466 0.0027551651 1.5095181e-38
1.2741567 -0.30681768 -0.0013394356 1.5371768e-38
1.2736549 -0.30402914 -0.0015692711 1.5187734e-38
1.2681681 -0.29972363 0.0059143305 1.5926016e-38
1.4474252 -0.9956497 -0.020981789 1.7496216e-38
1.4438107 -0.99008214 -0.017109632 1.7588412e-38
1.443285 -0.98716009 -0.017350435 1.7496576e-38
1.4396912 -0.98162961 -0.013498306 1.7496216e-38
1.4361163 -0.97612858 -0.0096666813 1.6850128e-38
1.4295433 -0.96810436 -0.0018253326 1.6572822e-38
1.4260234 -0.96268195 0.0019456148 1.6295516e-38
1.4255046 -0.95979828 0.0017080307 1.6203321e-38
1.4249858 -0.95691448 0.0014703274 1.6295876e-38
1.424467 -0.95403093 0.0012326241 1.6203679e-38
1.4209694 -0.94865954 0.0049858093 1.6296235e-38
1.4204519 -0.9457835 0.004748702 1.6757573e-38
1.4169741 -0.94044769 0.0084828138 1.7127075e-38
1.419417 -0.94003117 0.0042746067 1.7495857e-38
1.4129994 -0.93227863 0.011961579 1.7496217e-38
1.4154258 -0.93184173 0.0077736378 1.7035598e-38
1.4090456 -0.9241519 0.015422344 1.7312185e-38
1.411455 -0.92369509 0.011254311 1.7220349e-38
1.405112 -0.91606736 0.018865347 1.7589132e-38
1.4075053 -0.91559064 0.014716864 1.7681688e-38
1.4128451 -0.91749847 0.0065915585 1.7312904e-38
1.4152774 -0.91702187 0.0023784637 1.7128514e-38
1.4118129 -0.91176116 0.0061187744 1.6851928e-38
1.4112968 -0.90889251 0.0058823824 1.6298396e-38
1.4107808 -0.90602386 0.0056459904 1.6113646e-38
1.4102646 -0.90315521 0.0054095984 1.6113647e-38
1.41269 -0.90264094 0.0011934042 1.6113647e-38
1.4151282 -0.90212411 -0.0030448437 1.6574625e-38
1.4116551 -0.89688861 0.00071930885 1.7034885e-38
1.4170589 -0.89871311 -0.0075438023 1.7127079e-38
1.4135717 -0.89347297 -0.0037578344 1.6942688e-38
1.4160185 -0.89293051 -0.008020401 1.7311467e-38
1.4095852 -0.88538396 -0.00022876263 1.7495859e-38
1.4120153 -0.88482171 -0.0044708252 1.7127076e-38
1.4085504 -0.87963164 -0.00070285797 1.6941965e-38
1.4051036 -0.87446868 0.0030455589 1.6757215e-38
1.4045874 -0.87160003 0.0028090477 1.6757215e-38
1.4069979 -0.87100327 -0.0014138222 1.6480268e-38
1.4094212 -0.87040323 -0.0056589842 1.6572463e-38
1.4059631 -0.86525083 -0.0018879175 1.6295516e-38
1.4083835 -0.86463588 -0.0061342716 1.6664659e-38
1.4020069 -0.85725677 0.0016270876 1.684941e-38
1.4044107 -0.85662234 -0.0025990009 1.6941606e-38
1.4038932 -0.85374618 -0.002835989 1.6941965e-38
1.4033757 -0.85087007 -0.0030729771 1.7034162e-38
1.4028583 -0.84799385 -0.0033100843 1.7125999e-38
1.3965269 -0.84072077 0.0044163465 1.7310749e-38
1.3931292 -0.83568561 0.0081319809 1.7402585e-38
1.3926158 -0.8328318 0.007896781 1.7311467e-38
1.3949826 -0.83213711 0.0037090778 1.7771727e-38
1.3973619 -0.8314389 -0.00050055981 1.7402944e-38
1.3882128 -0.82213748 0.011124611 1.7402584e-38
1.3877007 -0.81929106 0.010890007 1.6941244e-38
1.3871886 -0.81644469 0.010655403 1.6849047e-38
1.3866764 -0.81359833 0.010420799 1.6387709e-38
1.3861644 -0.81075197 0.010186315 1.6203316e-38
1.3856523 -0.80790561 0.0099517107 1.6573182e-38
1.3823004 -0.80298132 0.013633728 1.7311467e-38
1.3817896 -0.80014235 0.013399839 1.7404026e-38
1.3812789 -0.79730332 0.013165832 1.7403304e-38
1.3807681 -0.79446435 0.012931824 1.7402944e-38
1.3830918 -0.79367387 0.0087789297 1.7402581e-38
1.3854278 -0.79287934 0.0046043396 1.7125996e-38
1.3906525 -0.79414642 -0.0035737753 1.7310027e-38
1.384401 -0.78717178 0.0041339397 1.684905e-38
1.3810434 -0.78228843 0.0078406334 1.7310028e-38
1.3862317 -0.7834971 -0.00029945374 1.7217831e-38
1.3857168 -0.78063583 -0.00053524971 1.6757572e-38
1.3880719 -0.7798031 -0.0047558546 1.6849768e-38
1.3846873 -0.77491355 -0.0010068417 1.7310744e-38
1.3813204 -0.77004933 0.0027228594 1.7494776e-38
1.3865236 -0.77119714 -0.0054650307 1.7863558e-38
1.3917813 -0.77235705 -0.01373899 1.8140864e-38
1.4000338 -0.77557325 -0.026194334 1.8417811e-38
1.3965731 -0.7706303 -0.022339106 1.8233778e-38
1.4078913 -0.77591097 -0.039090276 1.8049027e-38
1.4038562 -0.76800573 -0.035410881 1.7679163e-38
1.402279 -0.75923955 -0.036133289 1.7679161e-38
1.4017533 -0.75631738 -0.036374092 1.8047944e-38
1.3884488 -0.73969162 -0.020648718 1.8232339e-38
1.3937585 -0.74069399 -0.029068708 1.7863198e-38
1.3932357 -0.73778743 -0.0293082 1.7863557e-38
1.3839991 -0.72910142 -0.017303705 1.7771361e-38
1.3806075 -0.72431886 -0.013502121 1.7033436e-38
1.3829614 -0.72333401 -0.017778873 1.7310023e-38
1.3738773 -0.71482873 -0.0059583187 1.675685e-38
1.3762014 -0.71382409 -0.01019311 1.6572818e-38
1.370025 -0.70726681 -0.002450943 1.7033437e-38
1.3723329 -0.70624518 -0.0066657066 1.7125631e-38
1.3746531 -0.70521814 -0.010902405 1.7586249e-38
1.3713034 -0.70052278 -0.0071372986 1.7679164e-38
1.3736209 -0.69948077 -0.011375189 1.7679164e-38
1.3702739 -0.69480038 -0.0076088905 1.777136e-38
1.3754328 -0.69555724 -0.01587224 1.7955751e-38
1.3749155 -0.69268113 -0.016109347 1.8048307e-38
1.36312 -0.68266588 -0.00036919117 1.7863917e-38
1.3598263 -0.67806524 0.0033394098 1.8047948e-38
1.3648907 -0.6787293 -0.0048027039 1.8140144e-38
1.35604 -0.67065656 0.0067956448 1.8231979e-38
1.3500462 -0.66440469 0.014351487 1.8324175e-38
1.3577832 -0.66670918 0.0024036169 1.8232339e-38
1.365641 -0.66904974 -0.0097309351 1.8508926e-38
1.3707757 -0.66967177 -0.01800549 1.8140145e-38
1.3674276 -0.665057 -0.014212012 1.8047948e-38
1.3557401 -0.65535319 0.0014677048 1.8601122e-38
1.3607833 -0.65589929 -0.0066841841 1.8232339e-38
1.3658793 -0.65645105 -0.014921188 1.8140144e-38
1.3653631 -0.65358233 -0.01515758 1.7956471e-38
1.3564627 -0.64566326 -0.0034185648 1.7588049e-38
1.3587296 -0.64448428 -0.0076248646 1.7404018e-38
1.3582162 -0.64163053 -0.0078600645 1.7219268e-38
1.3577027 -0.63877678 -0.0080952644 1.7588052e-38
1.3516539 -0.63264114 -0.00040388107 1.7588413e-38
1.3566759 -0.63306928 -0.0085655451 1.758805e-38
1.3561624 -0.63021553 -0.008800745 1.7311462e-38
1.3501216 -0.62412417 -0.0011057854 1.6850122e-38
1.352366 -0.62289238 -0.0052951574 1.6757566e-38
1.3546221 -0.62165427 -0.0095062256 1.7218546e-38
1.3513417 -0.61719966 -0.005764246 1.7218907e-38
1.3535953 -0.61594677 -0.0099766254 1.7311465e-38
1.3503176 -0.611507 -0.0062334538 1.7310746e-38
1.347057 -0.60709012 -0.002509594 1.7034519e-38
1.3465462 -0.60425115 -0.0027434826 1.7034519e-38
1.3515416 -0.60453176 -0.010917306 1.6573541e-38
1.3482691 -0.60012156 -0.0071716309 1.5927811e-38
1.347757 -0.5972752 -0.0074062347 1.5650864e-38
1.344503 -0.59289509 -0.0036793947 1.5466473e-38
1.3467329 -0.59158248 -0.0078753233 1.555867e-38
1.3407563 -0.585706 -0.00020503998 1.6111487e-38
1.3375368 -0.58137822 0.0034842491 1.6203684e-38
1.3397373 -0.5800426 -0.00067186356 1.6111848e-38
1.3365206 -0.57572937 0.0030186176 1.6849412e-38
1.3333203 -0.57143831 0.0066901445 1.6665379e-38
1.3355042 -0.57008058 0.0025532246 1.6757934e-38
1.3349961 -0.56725621 0.0023204088 1.7126715e-38
1.3344879 -0.56443179 0.0020875931 1.6757932e-38
1.3366805 -0.56305254 -0.0020719767 1.6758651e-38
1.3334717 -0.55878299 0.0016222 1.7034159e-38
1.3302791 -0.55453533 0.005297184 1.7402223e-38
1.3297724 -0.55171812 0.0050649643 1.7309667e-38
1.3319472 -0.55030978 0.00092387199 1.7678809e-38
1.3341333 -0.54889411 -0.003238678 1.7586614e-38
1.3309308 -0.54466093 0.00045835972 1.7402584e-38
1.3331144 -0.54323071 -0.0037055016 1.7863561e-38
1.3353091 -0.54179305 -0.0078907013 1.7494776e-38
1.3320955 -0.53756732 -0.0041722059 1.7678805e-38
1.3342875 -0.53611505 -0.0083585978 1.7125989e-38
1.3337768 -0.53327608 -0.0085926056 1.758661e-38
1.3252107 -0.52636367 0.0029755831 1.7494417e-38
1.3247038 -0.52354652 0.0027433634 1.7586973e-38
1.3215419 -0.51939982 0.006406188 1.7679168e-38
1.3157694 -0.51396549 0.01390624 1.7863558e-38
1.3205309 -0.51377988 0.0059430599 1.7955752e-38
1.3200253 -0.51096994 0.0057115555 1.7679165e-38
1.3195198 -0.50815994 0.0054799318 1.8416372e-38
1.3137575 -0.50278282 0.012984753 1.8692597e-38
1.3158749 -0.5012604 0.0088953972 1.8692596e-38
1.3180031 -0.49973008 0.0047852993 1.8323816e-38
1.3148663 -0.49565473 0.0084334612 1.9061741e-38
1.316992 -0.49411014 0.004322052 1.9062103e-38
1.3138578 -0.49004915 0.0079715252 1.9062463e-38
1.3133535 -0.48724636 0.0077404976 1.8970985e-38
1.3128493 -0.48444358 0.0075095892 1.9063539e-38
1.3149698 -0.48287031 0.0033957958 1.9155733e-38
1.3144642 -0.48006031 0.0031642914 1.9155372e-38
1.3139588 -0.47725043 0.0029326677 1.8970622e-38
1.3160875 -0.47565469 -0.0012032986 1.8601478e-38
1.3155806 -0.47283754 -0.0014355183 1.878551e-38
1.3150738 -0.47002032 -0.001667738 1.8324533e-38
1.3119365 -0.46601054 0.0020064116 1.8785513e-38
1.3140601 -0.46438602 -0.0021319389 1.8140144e-38
1.3135532 -0.46156886 -0.0023641586 1.8140142e-38
1.3104199 -0.45758066 0.001311779 1.8048305e-38
1.3125396 -0.45593455 -0.0028284788 1.7495131e-38
1.3120327 -0.4531174 -0.0030605793 1.8048305e-38
1.3089032 -0.44915077 0.00061702728 1.8140144e-38
1.3110191 -0.44748303 -0.0035250187 1.8416732e-38
1.3105122 -0.44466588 -0.0037571192 1.8324177e-38
1.3100053 -0.44184873 -0.0039892197 1.841673e-38
1.3094984 -0.43903157 -0.0042214394 1.8047589e-38
1.3142644 -0.43845829 -0.012339711 1.7863197e-38
1.311113 -0.43450907 -0.0086191893 1.8139782e-38
1.3132455 -0.4327949 -0.012806416 1.7862835e-38
1.3153889 -0.43107197 -0.017015219 1.7955028e-38
1.328344 -0.43382648 -0.037441373 1.7770997e-38
1.3251066 -0.42982742 -0.033597112 1.8047585e-38
1.3327891 -0.43032247 -0.04614377 1.7956108e-38
1.3378044 -0.42968801 -0.054698586 1.8048305e-38
1.3345079 -0.42565766 -0.050768137 1.8140502e-38
1.3390211 -0.42208245 -0.059610248 1.8140144e-38
1.3412958 -0.42028064 -0.064066768 1.8324535e-38
1.3324217 -0.41406193 -0.051723719 1.8140144e-38
1.3346668 -0.4122484 -0.056135774 1.8508567e-38
1.3425285 -0.41260937 -0.069029808 1.8416732e-38
1.339193 -0.4085924 -0.065029979 1.8601841e-38
1.3386673 -0.40567029 -0.065270782 1.8325614e-38
1.3040752 -0.38182458 -0.017006874 1.8325608e-38
1.295759 -0.37609187 -0.0054037571 1.786499e-38
1.292679 -0.37233195 -0.0017294884 1.8325249e-38
1.2947478 -0.37047192 -0.0058668852 1.8509642e-38
1.2891117 -0.36579546 0.0016956329 1.8324892e-38
1.2911662 -0.36392355 -0.002422452 1.8324894e-38
1.2881057 -0.36020413 0.001234889 1.7955752e-38
1.2876028 -0.35740849 0.0010044575 1.8324895e-38
1.2845591 -0.35371509 0.0046439171 1.777172e-38
1.2891492 -0.35271239 -0.003346324 1.777136e-38
1.2860938 -0.34902152 0.00031328201 1.8047946e-38
1.2881407 -0.34710678 -0.00380826 1.7863555e-38
1.2901978 -0.34518227 -0.0079510212 1.777136e-38
1.2896923 -0.34237233 -0.0081825256 1.777136e-38
1.2866278 -0.33869845 -0.0045012236 1.7679523e-38
1.2861235 -0.33589563 -0.004732132 1.7586968e-38
1.2856193 -0.33309284 -0.0049631596 1.7679526e-38
1.282573 -0.32945189 -0.0012993813 1.7586973e-38
1.28207 -0.32665625 -0.0015298128 1.684905e-38
1.2841065 -0.32468447 -0.0056561232 1.6756137e-38
1.2810642 -0.32106492 -0.0019905567 1.6201887e-38
1.285648 -0.31989267 -0.010035038 1.574055e-38
1.2825937 -0.3162761 -0.0063490868 1.6017497e-38
1.2820895 -0.31347331 -0.0065799952 1.5833105e-38
1.2765319 -0.30909804 0.00096702576 1.5833105e-38
1.2785492 -0.30708662 -0.0031425953 1.5925659e-38
1.2780463 -0.30429098 -0.0033729076 1.5649431e-38
1.2750268 -0.30073234 0.00027751923 1.6386994e-38
1.4493936 -0.99511576 -0.01880002 1.7865359e-38
1.4488666 -0.99218607 -0.019041419 1.7496576e-38
1.4452482 -0.98662758 -0.015174508 1.7680967e-38
1.4416492 -0.98109853 -0.011328101 1.7588772e-38
1.4380692 -0.97559881 -0.0075021982 1.721927e-38
1.4345082 -0.97012806 -0.0036963224 1.6757572e-38
1.4279609 -0.96215647 0.004093051 1.6572463e-38
1.4274421 -0.9592728 0.0038554668 1.6480266e-38
1.4269232 -0.95638901 0.0036177635 1.6111485e-38
1.4264044 -0.95350534 0.0033800602 1.6572462e-38
1.4258856 -0.95062166 0.0031424761 1.703344e-38
1.4253668 -0.94773787 0.002904892 1.7126356e-38
1.4189014 -0.93992484 0.010618925 1.7772446e-38
1.4213494 -0.93950701 0.00641644 1.7865001e-38
1.4149218 -0.93175709 0.014092207 1.7772804e-38
1.417353 -0.93131888 0.009909749 1.7773166e-38
1.4109629 -0.92363179 0.017547488 1.7589132e-38
1.4133774 -0.92317355 0.013384938 1.7404381e-38
1.4070245 -0.91554856 0.020984888 1.7589132e-38
1.4123479 -0.91745114 0.012913346 1.7589132e-38
1.4177271 -0.91937375 0.0047572851 1.7312545e-38
1.4201785 -0.91890079 0.00052833557 1.7219991e-38
1.4196597 -0.91601712 0.00029075146 1.6759373e-38
1.4161748 -0.91074526 0.0040462017 1.620584e-38
1.4186221 -0.91024965 -0.00018453598 1.6113647e-38
1.4181033 -0.90736598 -0.0004222393 1.5467921e-38
1.420562 -0.90685999 -0.0046759844 1.546756e-38
1.4200419 -0.90396881 -0.0049142838 1.5836344e-38
1.4195217 -0.90107751 -0.0051524639 1.6389517e-38
1.4249958 -0.90293372 -0.013490438 1.6758299e-38
1.4184813 -0.8952949 -0.0056290627 1.6573545e-38
1.4209477 -0.89475584 -0.0099077225 1.703452e-38
1.4144715 -0.88717991 -0.0020856857 1.6942325e-38
1.4169208 -0.886621 -0.0063438416 1.6573182e-38
1.4134339 -0.88141257 -0.0025609732 1.6757213e-38
1.4070309 -0.87394583 0.0051816702 1.6203679e-38
1.4065148 -0.87107718 0.0049452782 1.6388071e-38
1.4118775 -0.87276143 -0.0032739639 1.6480266e-38
1.4113587 -0.86987764 -0.003511548 1.5926732e-38
1.4108398 -0.86699396 -0.0037492514 1.6202961e-38
1.410321 -0.86411029 -0.0039868355 1.6479906e-38
1.4068605 -0.85897434 -0.00022029877 1.6940884e-38
1.4092834 -0.85834283 -0.0044622421 1.6572463e-38
1.4087646 -0.85545909 -0.0046998262 1.7310387e-38
1.4053081 -0.85034591 -0.00093126297 1.703416e-38
1.4077269 -0.84969169 -0.0051751137 1.7310747e-38
1.3984493 -0.84019935 0.0065469742 1.7218913e-38
1.3979346 -0.83733809 0.0063111782 1.7772087e-38
1.3974198 -0.83447695 0.0060753822 1.8141228e-38
1.3998054 -0.8337847 0.0018720627 1.7956478e-38
1.3992893 -0.83091611 0.0016355515 1.767989e-38
1.3929929 -0.8237505 0.0093163252 1.7587335e-38
1.3896132 -0.81877232 0.013009548 1.7218191e-38
1.389101 -0.81592596 0.012775064 1.7125634e-38
1.3914527 -0.81518924 0.0086107254 1.6572098e-38
1.3880768 -0.81023324 0.012305975 1.6479542e-38
1.3875648 -0.80738688 0.012071371 1.6480624e-38
1.3842078 -0.80246395 0.015747786 1.7403303e-38
1.383697 -0.79962498 0.015513897 1.7496222e-38
1.3831862 -0.79678595 0.015279889 1.7864283e-38
1.3826755 -0.79394698 0.015045881 1.7587334e-38
1.3878586 -0.79521298 0.0069645643 1.7586614e-38
1.390213 -0.79442036 0.002774477 1.7401862e-38
1.3925798 -0.79362363 -0.001437664 1.7217831e-38
1.3891835 -0.78869796 0.0023028851 1.7217473e-38
1.3886688 -0.78583682 0.0020670891 1.7401864e-38
1.3910315 -0.78501761 -0.0021468401 1.703344e-38
1.3905154 -0.78214896 -0.0023832321 1.7125634e-38
1.392889 -0.78131801 -0.0066199303 1.6941602e-38
1.3923717 -0.77844179 -0.0068569183 1.7495134e-38
1.388967 -0.77354306 -0.0030925274 1.7863558e-38
1.3913367 -0.77268946 -0.0073308945 1.8232339e-38
1.3937188 -0.77183145 -0.011591554 1.8325255e-38
1.3990424 -0.7730009 -0.019941449 1.8233418e-38
1.3985208 -0.77010196 -0.020180345 1.8510724e-38
1.4098598 -0.77537704 -0.036908507 1.7865355e-38
1.4033736 -0.76835406 -0.028860211 1.8049386e-38
1.4058194 -0.7674731 -0.033234954 1.8048665e-38
1.404768 -0.76162899 -0.033716559 1.7771717e-38
1.4072242 -0.76072776 -0.03811574 1.767952e-38
1.4037166 -0.75578487 -0.034198165 1.767952e-38
1.4091648 -0.75688404 -0.042780519 1.7587327e-38
1.3967572 -0.74597752 -0.026425242 1.7863554e-38
1.387493 -0.73722696 -0.014443278 1.7863557e-38
1.3957114 -0.74016428 -0.026904345 1.7678807e-38
1.3951885 -0.73725772 -0.027143836 1.7678805e-38
1.3859366 -0.72857583 -0.015156269 1.7125633e-38
1.3854177 -0.72569209 -0.015393853 1.7310024e-38
1.3877904 -0.7247082 -0.019687057 1.694124e-38
1.3786448 -0.71616995 -0.0078206062 1.6849045e-38
1.3781288 -0.7133013 -0.008056879 1.6664653e-38
1.3719424 -0.7067467 -0.0003259182 1.7033436e-38
1.3742553 -0.70572376 -0.004535079 1.7494415e-38
1.3737406 -0.7028625 -0.0047707558 1.7494774e-38
1.3704021 -0.69818544 -0.0010313988 1.7863555e-38
1.3727111 -0.6971401 -0.0052423477 1.7863555e-38
1.3693752 -0.69247794 -0.0015017986 1.7863554e-38
1.3773652 -0.69503307 -0.013730526 1.7863914e-38
1.3768479 -0.69215697 -0.013967514 1.777136e-38
1.3650324 -0.68214715 0.00175035 1.7679165e-38
1.3617338 -0.67754787 0.0054535866 1.7771721e-38
1.3640082 -0.67645448 0.0012812614 1.8140144e-38
1.3579425 -0.6701405 0.0089043379 1.8324533e-38
1.351939 -0.66389126 0.016449332 1.7679164e-38
1.3569236 -0.66447717 0.0084376335 1.8140142e-38
1.3619598 -0.66506904 0.00034296513 1.8324175e-38
1.3642409 -0.66394043 -0.0038535595 1.8324533e-38
1.3637275 -0.66108668 -0.0040887594 1.8324535e-38
1.3548858 -0.65315038 0.0075042248 1.7679165e-38
1.3599114 -0.6536836 -0.00059533119 1.7955752e-38
1.3649895 -0.65422237 -0.0087792873 1.7955752e-38
1.3644748 -0.65136123 -0.0090150833 1.7679886e-38
1.3556044 -0.64347982 0.0026459694 1.7588049e-38
1.360647 -0.64396417 -0.0054998398 1.7404378e-38
1.3629305 -0.64277768 -0.009722352 1.7680605e-38
1.3624157 -0.63991654 -0.009958148 1.758841e-38
1.3563267 -0.63375908 -0.0022373199 1.740402e-38
1.3585932 -0.63254917 -0.0064405203 1.7311465e-38
1.3580798 -0.62969542 -0.0066757202 1.758769e-38
1.3547904 -0.62522 -0.0029408932 1.712635e-38
1.3542783 -0.62237364 -0.0031754971 1.7034155e-38
1.3565395 -0.62113416 -0.0073812008 1.6850124e-38
1.3560261 -0.61828041 -0.0076164007 1.6850125e-38
1.3555126 -0.61542666 -0.0078516006 1.6666095e-38
1.3549992 -0.61257291 -0.0080866814 1.7218912e-38
1.3489643 -0.60657275 -0.00039553642 1.7126357e-38
1.3484536 -0.60373378 -0.00062942505 1.6849412e-38
1.353459 -0.60401165 -0.0087922812 1.666502e-38
1.3501816 -0.59960282 -0.0050520897 1.6296597e-38
1.3469212 -0.59521675 -0.0013313293 1.555903e-38
1.3464105 -0.59237772 -0.001565218 1.5282445e-38
1.3486453 -0.59106374 -0.0057557821 1.5282803e-38
1.3426588 -0.58518994 0.0019035339 1.4729272e-38
1.3394344 -0.58086348 0.0055874586 1.5190611e-38
1.3416399 -0.57952654 0.0014368296 1.6020373e-38
1.3384181 -0.57521462 0.0051219463 1.629696e-38
1.3352131 -0.57092488 0.0087879896 1.6481351e-38
1.3374019 -0.56956583 0.0046563148 1.6757936e-38
1.3368937 -0.56674147 0.0044236183 1.6666458e-38
1.3363855 -0.56391704 0.0041909218 1.6666457e-38
1.3385831 -0.56253648 3.6716461e-05 1.675901e-38
1.3353692 -0.55826825 0.0037252903 1.7034519e-38
1.3321719 -0.55402189 0.0073950291 1.7218191e-38
1.3316652 -0.55120468 0.0071629286 1.7402223e-38
1.3338448 -0.54979503 0.0030270815 1.7402223e-38
1.3333366 -0.54697061 0.0027942657 1.7771365e-38
1.3301445 -0.54275322 0.0064663887 1.767953e-38
1.3323203 -0.54132175 0.0023288727 1.7772084e-38
1.3372165 -0.54127568 -0.0057765245 1.7863559e-38
1.333998 -0.53705126 -0.0020635128 1.8047948e-38
1.3334886 -0.53421956 -0.0022969246 1.7586608e-38
1.3356842 -0.53275871 -0.0064784288 1.7679165e-38
1.3297796 -0.52719975 0.0011650324 1.7863558e-38
1.3239355 -0.52169764 0.0087302923 1.7771364e-38
1.3234299 -0.5188877 0.0084986687 1.7771364e-38
1.3202792 -0.51476347 0.012137413 1.7863557e-38
1.3224188 -0.51326776 0.0080355406 1.8324532e-38
1.3219132 -0.51045781 0.0078040361 1.8232336e-38
1.3214077 -0.50764781 0.0075724125 1.8508565e-38
1.3203967 -0.50202793 0.0071092844 1.8784793e-38
1.3172537 -0.49794677 0.010751605 1.8508565e-38
1.3167495 -0.49514392 0.010520697 1.8877348e-38
1.3162452 -0.49234113 0.010289669 1.887771e-38
1.3157409 -0.48953834 0.010058641 1.9154297e-38
1.3152367 -0.48673555 0.009827733 1.906318e-38
1.3147324 -0.48393276 0.0095967054 1.8971343e-38
1.3168578 -0.48235819 0.0054883957 1.8879506e-38
1.3163522 -0.47954819 0.005256772 1.8878786e-38
1.3158467 -0.4767383 0.0050251484 1.8878426e-38
1.3179803 -0.47514126 0.00089454651 1.8878064e-38
1.3174734 -0.4723241 0.00066232681 1.8508923e-38
1.3169667 -0.46950689 0.00043022633 1.8324533e-38
1.3164598 -0.4666898 0.00019812584 1.8324535e-38
1.3159529 -0.46387258 -3.4093857e-05 1.7955752e-38
1.315446 -0.46105543 -0.00026631355 1.7678805e-38
1.3149391 -0.45823833 -0.00049841404 1.7586967e-38
1.3144324 -0.45542112 -0.00073063374 1.7495131e-38
1.3165678 -0.45376518 -0.0048866272 1.7955751e-38
1.3134187 -0.44978681 -0.0011949539 1.7956111e-38
1.3155514 -0.44811633 -0.0053522587 1.841673e-38
1.3176953 -0.44643727 -0.0095310211 1.8140144e-38
1.3145351 -0.44246754 -0.0058176517 1.823198e-38
1.314027 -0.43964317 -0.0060504675 1.8047589e-38
1.3188287 -0.43907157 -0.014199138 1.8047588e-38
1.3156575 -0.43511054 -0.01046443 1.7770641e-38
1.3204799 -0.43451408 -0.018656969 1.7494052e-38
1.3253527 -0.43391132 -0.026934981 1.7678084e-38
1.3330171 -0.43443725 -0.039396048 1.7770998e-38
1.3324982 -0.43155351 -0.039633632 1.7955748e-38
1.3374988 -0.43092719 -0.048131585 1.8048304e-38
1.3397573 -0.4291583 -0.052534103 1.8048305e-38
1.3364556 -0.42512938 -0.048609376 1.795611e-38
1.3387114 -0.42334506 -0.053013206 1.8048307e-38
1.3381885 -0.4204385 -0.053252697 1.8140144e-38
1.343259 -0.41974807 -0.061890841 1.8140144e-38
1.3316106 -0.41244775 -0.045420289 1.7955754e-38
1.3338479 -0.41063473 -0.049803853 1.8047949e-38
1.3388819 -0.40989408 -0.05840075 1.8232699e-38
1.3355738 -0.40590551 -0.054450393 1.8601842e-38
1.3350508 -0.40299889 -0.054689884 1.8325255e-38
1.3235494 -0.39591214 -0.03838098 1.8325614e-38
1.3091239 -0.38513049 -0.018644333 1.8325611e-38
1.3112621 -0.38327959 -0.022879124 1.8417805e-38
1.3028477 -0.37750617 -0.011171103 1.7956826e-38
1.3023396 -0.3746818 -0.011403918 1.8325249e-38
1.3018314 -0.37185737 -0.011636734 1.8048663e-38
1.2961303 -0.36714986 -0.004005909 1.7956108e-38
1.2956247 -0.36433992 -0.0042375326 1.8048305e-38
1.2951192 -0.36152998 -0.0044690371 1.8324175e-38
1.2971996 -0.35963753 -0.0086240768 1.7863198e-38
1.294108 -0.35591003 -0.0049321651 1.7863195e-38
1.2961859 -0.35400322 -0.009088397 1.7863554e-38
1.2930969 -0.35029015 -0.0053952932 1.7586966e-38
1.2951722 -0.34836885 -0.0095527172 1.7955749e-38
1.2946653 -0.3455517 -0.0097849369 1.7679163e-38
1.2941586 -0.34273455 -0.010017037 1.7863195e-38
1.2936517 -0.33991739 -0.010249138 1.7863915e-38
1.2905692 -0.33624032 -0.0065531731 1.758697e-38
1.2900637 -0.33343038 -0.0067846775 1.7863558e-38
1.2895581 -0.33062038 -0.0070163012 1.7402581e-38
1.2864939 -0.32697651 -0.0033379793 1.7678809e-38
1.288547 -0.32500049 -0.0074794292 1.7032723e-38
1.2880415 -0.32219055 -0.0077109337 1.6386637e-38
1.2875359 -0.31938055 -0.0079425573 1.6201528e-38
1.2870303 -0.31657061 -0.008174181 1.657103e-38
1.2839726 -0.31296253 -0.0044928789 1.6479193e-38
1.2834684 -0.31015974 -0.0047237873 1.6202965e-38
1.2855138 -0.30814072 -0.0088688135 1.6387356e-38
1.2850082 -0.30533078 -0.0091004372 1.6571746e-38
1.4482629 -0.99193907 -0.012516975 1.7588772e-38
1.4477372 -0.98901701 -0.012757778 1.7680607e-38
1.4472115 -0.98609495 -0.012998581 1.7311825e-38
1.4466858 -0.98317289 -0.013239384 1.7404381e-38
1.4400221 -0.97506917 -0.0053377151 1.7219629e-38
1.4364558 -0.96959972 -0.0015375614 1.6757932e-38
1.4298984 -0.96163088 0.0062403679 1.6665376e-38
1.4293795 -0.95874721 0.0060027838 1.6480625e-38
1.4288607 -0.95586342 0.0057650805 1.6572822e-38
1.4283419 -0.95297986 0.0055274963 1.703344e-38
1.4278231 -0.95009619 0.005289793 1.6665018e-38
1.4273043 -0.9472124 0.0050522089 1.721891e-38
1.4237993 -0.94185901 0.0087952614 1.7680249e-38
1.4232818 -0.93898284 0.0085582733 1.804975e-38
1.4168441 -0.93123567 0.016222954 1.7773163e-38
1.4222469 -0.9332304 0.008084178 1.7773163e-38
1.4128803 -0.92311168 0.019672632 1.7866078e-38
1.4152998 -0.92265213 0.015515566 1.7865719e-38
1.4118534 -0.91740417 0.019202232 1.7773164e-38
1.4142703 -0.91692972 0.015043974 1.7680969e-38
1.4196596 -0.91884959 0.0068991184 1.7127435e-38
1.422116 -0.91837531 0.0026757717 1.7404382e-38
1.4215972 -0.91549152 0.0024380684 1.7219631e-38
1.4210784 -0.91260785 0.0022003651 1.7035239e-38
1.4205596 -0.90972418 0.001962781 1.6758298e-38
1.4200407 -0.90684038 0.0017251968 1.5928539e-38
1.4225047 -0.90633309 -0.0025229454 1.5559399e-38
1.4249817 -0.90582335 -0.0067933798 1.6205126e-38
1.4214643 -0.9005506 -0.0029994249 1.611257e-38
1.4269487 -0.90240407 -0.011326075 1.6757939e-38
1.423417 -0.89712644 -0.007510066 1.6481351e-38
1.4259028 -0.89659095 -0.011805058 1.6757576e-38
1.4193835 -0.8889854 -0.0039525032 1.6388791e-38
1.4188634 -0.88609409 -0.0041908026 1.6388431e-38
1.4183432 -0.88320279 -0.0044291019 1.620404e-38
1.4118977 -0.87570715 0.0033437014 1.6203319e-38
1.4113802 -0.87283099 0.0031067133 1.5926734e-38
1.4138149 -0.87223583 -0.0011265278 1.6019288e-38
1.4162625 -0.87163758 -0.0053821802 1.5834538e-38
1.4127773 -0.86646849 -0.0016019344 1.5927092e-38
1.415222 -0.86585498 -0.0058586597 1.6388071e-38
1.4117397 -0.86070102 -0.0020771027 1.6849408e-38
1.4141817 -0.86007237 -0.0063352585 1.6480626e-38
1.4136616 -0.85718107 -0.0065734386 1.7125994e-38
1.4131414 -0.85428977 -0.006811738 1.7034519e-38
1.4126211 -0.85139847 -0.0070500374 1.740366e-38
1.4062057 -0.84406936 0.00073647499 1.7680609e-38
1.402765 -0.83899927 0.0044810772 1.8141227e-38
1.3993421 -0.83395553 0.0082061291 1.8049033e-38
1.4017328 -0.83326185 0.0040082932 1.8233782e-38
1.4041358 -0.83256471 -0.00021159649 1.8049033e-38
1.3977978 -0.82537198 0.0074987411 1.8140868e-38
1.3943969 -0.82037669 0.011206269 1.7771725e-38
1.3938833 -0.81752294 0.010971069 1.7586974e-38
1.39337 -0.81466919 0.010735989 1.7218189e-38
1.3928566 -0.81181538 0.010500789 1.675649e-38
1.3923432 -0.80896169 0.010265589 1.6849406e-38
1.388965 -0.80402178 0.013956308 1.7034519e-38
1.3856045 -0.79910755 0.017627954 1.7864643e-38
1.3879408 -0.79832911 0.01348722 1.7680251e-38
1.3845829 -0.79342961 0.017160058 1.7679171e-38
1.3926501 -0.79676008 0.0051407814 1.7217833e-38
1.3950233 -0.79596937 0.00093507767 1.7770286e-38
1.3974088 -0.7951746 -0.0032929182 1.7309668e-38
1.3939911 -0.79023206 0.00046217442 1.6756136e-38
1.3934751 -0.78736341 0.00022578239 1.6848331e-38
1.3929589 -0.78449476 -1.0609627e-05 1.703308e-38
1.395339 -0.78366995 -0.0042409897 1.7033797e-38
1.3948215 -0.78079385 -0.0044779778 1.7218547e-38
1.3972127 -0.77995712 -0.008731246 1.7679167e-38
1.3908945 -0.77302027 -0.00095629692 1.7863917e-38
1.3932692 -0.7721653 -0.0051891804 1.8047948e-38
1.3956563 -0.77130592 -0.0094442368 1.8509286e-38
1.398056 -0.77044213 -0.013721585 1.8326333e-38
1.3946186 -0.76553857 -0.009919405 1.8418888e-38
1.4088341 -0.77278471 -0.030577302 1.8234857e-38
1.3994254 -0.76377571 -0.018499374 1.8049744e-38
1.3989038 -0.76087677 -0.01873827 1.8049025e-38
1.3983823 -0.75797784 -0.018977165 1.8048665e-38
1.4008019 -0.75707418 -0.023302555 1.8232695e-38
1.4032344 -0.75616568 -0.027650714 1.7863913e-38
1.3997561 -0.75126094 -0.023781657 1.7956107e-38
1.3899493 -0.7395851 -0.012058258 1.777136e-38
1.3836689 -0.73285902 -0.0042659044 1.7771001e-38
1.3947314 -0.73768532 -0.020649433 1.7863557e-38
1.3942099 -0.73478645 -0.020888329 1.7494415e-38
1.387874 -0.72805029 -0.013008833 1.7125631e-38
1.3873552 -0.72516656 -0.013246536 1.7033437e-38
1.3897331 -0.72418118 -0.017534018 1.7033436e-38
1.3805723 -0.7156471 -0.0056843758 1.6756849e-38
1.3800561 -0.71277845 -0.0059206486 1.6295869e-38
1.3738598 -0.70622665 0.0017992258 1.7033434e-38
1.3761777 -0.70520234 -0.0024044514 1.7310383e-38
1.3756629 -0.70234108 -0.0026402473 1.7863198e-38
1.3723195 -0.69766533 0.0010937452 1.7863557e-38
1.3746333 -0.69661868 -0.0031118393 1.8047945e-38
1.3712926 -0.69195789 0.00062334538 1.7771358e-38
1.3792977 -0.69450891 -0.011588812 1.8140499e-38
1.3787802 -0.69163281 -0.0118258 1.7955749e-38
1.364152 -0.67986941 0.007801652 1.7679524e-38
1.3608639 -0.67528784 0.011479616 1.7863557e-38
1.3659205 -0.67593575 0.0034008026 1.7956111e-38
1.3570846 -0.66790533 0.014906168 1.777172e-38
1.3538316 -0.66337788 0.018547177 1.7863914e-38
1.3560684 -0.66225648 0.014440656 1.7955749e-38
1.3638722 -0.6645503 0.0024626255 1.7771358e-38
1.368971 -0.66514575 -0.0057054758 1.7586967e-38
1.3656448 -0.66056663 -0.0019636154 1.8047945e-38
1.359555 -0.65431845 0.0056960583 1.7955752e-38
1.3618238 -0.65316486 0.0015243292 1.7771361e-38
1.369734 -0.6554054 -0.010648847 1.7955752e-38
1.3692179 -0.65253675 -0.010885239 1.8140504e-38
1.3602875 -0.64462578 0.00082063675 1.7680244e-38
1.3681856 -0.64679945 -0.011358023 1.7404018e-38
1.3676696 -0.64393079 -0.011594415 1.7496573e-38
1.3671534 -0.64106214 -0.011830807 1.7404019e-38
1.3582391 -0.63324034 -0.00011765957 1.7496216e-38
1.3633085 -0.63367271 -0.0082991123 1.740366e-38
1.3656051 -0.63245618 -0.012540102 1.7126713e-38
1.3594837 -0.62632161 -0.0047857761 1.6942321e-38
1.3589703 -0.62346786 -0.0050208569 1.6941959e-38
1.3612494 -0.62222803 -0.0092422962 1.7034156e-38
1.3579434 -0.61776036 -0.0054912567 1.7034158e-38
1.36022 -0.61650562 -0.0097138882 1.7034159e-38
1.3597052 -0.61364436 -0.0099496841 1.703416e-38
1.3536302 -0.60762316 -0.0022287369 1.6941607e-38
1.3531182 -0.6047768 -0.0024633408 1.7033444e-38
1.3553764 -0.6034916 -0.0066671371 1.6756859e-38
1.3520939 -0.59908408 -0.0029324293 1.6204404e-38
1.3515818 -0.59623772 -0.0031670332 1.5651229e-38
1.3510698 -0.59339136 -0.0034015179 1.5098415e-38
1.3533226 -0.5920766 -0.0076078176 1.4914382e-38
1.3472964 -0.58618236 8.0943108e-05 1.4453764e-38
1.3440518 -0.58184218 0.0037789345 1.4638516e-38
1.3462749 -0.5805043 -0.00038695335 1.4914744e-38
1.343033 -0.57617879 0.0033121109 1.58367e-38
1.3398076 -0.57187551 0.0069923401 1.6389515e-38
1.342014 -0.57051539 0.0028454065 1.6942689e-38
1.3415046 -0.5676837 0.002612114 1.6573905e-38
1.3409951 -0.564852 0.0023787022 1.6666817e-38
1.3404857 -0.56202042 0.0021454096 1.6759013e-38
1.3399762 -0.55918872 0.0019119978 1.6942682e-38
1.3367587 -0.55492908 0.0055959225 1.7310746e-38
1.3362507 -0.55210471 0.0053631067 1.7217831e-38
1.3384478 -0.55069363 0.0012118816 1.7678809e-38
1.3379383 -0.54786193 0.00097858906 1.7771365e-38
1.3347262 -0.54363143 0.0046648979 1.8140506e-38
1.3369194 -0.54219854 0.00051188469 1.8048671e-38
1.3418519 -0.54215693 -0.0076237917 1.7771724e-38
1.3386132 -0.53791928 -0.0038964748 1.7772083e-38
1.3381025 -0.53508031 -0.0041303635 1.7771721e-38
1.3403157 -0.53361785 -0.0083274841 1.8140505e-38
1.3343722 -0.52804017 -0.00065493584 1.7864278e-38
1.3284894 -0.52251971 0.0069391727 1.8140146e-38
1.3253179 -0.51837558 0.010591149 1.8048308e-38
1.3248123 -0.51556563 0.010359645 1.8140142e-38
1.3291365 -0.51256299 0.0021045208 1.8232334e-38
1.3259552 -0.50843388 0.0057783127 1.8232336e-38
1.3222846 -0.50151581 0.0092017651 1.8693317e-38
1.321779 -0.49870583 0.0089702606 1.8785512e-38
1.3212734 -0.49589583 0.008738637 1.8785872e-38
1.3181283 -0.49183032 0.012376785 1.8969903e-38
1.3176241 -0.48902753 0.012145758 1.8970262e-38
1.3171198 -0.48622474 0.011914849 1.906246e-38
1.3166156 -0.48342195 0.011683822 1.906282e-38
1.3187457 -0.48184606 0.0075807571 1.9063179e-38
1.3208867 -0.48026219 0.0034567118 1.8786592e-38
1.3177346 -0.47622618 0.0071177483 1.8601839e-38
1.319873 -0.47462788 0.0029923916 1.8417088e-38
1.3220224 -0.47302124 -0.0011541843 1.8324894e-38
1.3188593 -0.46899351 0.0025280714 1.8047946e-38
1.3183525 -0.46617642 0.0022959709 1.7956112e-38
1.3178457 -0.46335921 0.0020637512 1.7494774e-38
1.3173388 -0.46054205 0.0018315315 1.7863555e-38
1.3194817 -0.45889929 -0.0023179054 1.7494413e-38
1.3189735 -0.45607486 -0.002550602 1.731038e-38
1.3211262 -0.45441625 -0.0067222118 1.7771358e-38
1.3206167 -0.45158461 -0.0069556236 1.7955749e-38
1.3227792 -0.44991019 -0.011149168 1.8048305e-38
1.3249527 -0.44822708 -0.015364528 1.841673e-38
1.3217577 -0.4442322 -0.011617184 1.8140142e-38
1.318579 -0.44025788 -0.0078890324 1.7955392e-38
1.326111 -0.44082776 -0.020072222 1.7863557e-38
1.3229043 -0.4368417 -0.016302824 1.758661e-38
1.3250841 -0.43512025 -0.020542502 1.7678085e-38
1.3327264 -0.43565425 -0.032920837 1.7585888e-38
1.3377147 -0.4350512 -0.041360974 1.7862835e-38
1.3344358 -0.43102798 -0.037486315 1.7955749e-38
1.3366743 -0.4292686 -0.041837573 1.8324891e-38
1.3389249 -0.42749998 -0.04621172 1.8048664e-38
1.335634 -0.42348599 -0.042314053 1.8140861e-38
1.3406643 -0.42281535 -0.050848722 1.7864274e-38
1.3401414 -0.41990873 -0.051088214 1.8324894e-38
1.3424128 -0.41810593 -0.055510044 1.7956111e-38
1.3335532 -0.41192079 -0.04326725 1.7955752e-38
1.3330331 -0.40902948 -0.04350543 1.7955752e-38
1.3380497 -0.40828237 -0.052046299 1.841673e-38
1.3319927 -0.40324688 -0.043982029 1.8325254e-38
1.3314725 -0.40035558 -0.044220209 1.8233418e-38
1.3227681 -0.39435795 -0.032161593 1.8602201e-38
1.3110313 -0.38461313 -0.016530275 1.8601839e-38
1.3105205 -0.3817741 -0.016764283 1.8601838e-38
1.3047453 -0.37699142 -0.009067893 1.8509282e-38
1.3042372 -0.37416705 -0.0093007088 1.7864271e-38
1.3037291 -0.37134263 -0.0095334053 1.8324889e-38
1.2980181 -0.36663774 -0.0019134283 1.7495129e-38
1.300106 -0.36475846 -0.0060619116 1.7863913e-38
1.2970071 -0.36101785 -0.0023765564 1.7955391e-38
1.3016964 -0.36004499 -0.01046443 1.7678804e-38
1.295996 -0.35539791 -0.0028396845 1.7494413e-38
1.2954904 -0.35258797 -0.0030713081 1.7770998e-38
1.2924111 -0.34888801 0.00059700012 1.749441e-38
1.2970649 -0.34785548 -0.0074548721 1.7586605e-38
1.2965581 -0.34503826 -0.0076870918 1.7955389e-38
1.2960513 -0.34222117 -0.0079191923 1.7955751e-38
1.2955445 -0.33940396 -0.0081512928 1.7679165e-38
1.2950376 -0.3365868 -0.0083835125 1.8140145e-38
1.2919515 -0.33291826 -0.0046923161 1.8140146e-38
1.2914461 -0.33010826 -0.0049238205 1.8416733e-38
1.288377 -0.3264657 -0.0012508631 1.8139788e-38
1.290435 -0.32448837 -0.0053869486 1.7585896e-38
1.2899294 -0.32167843 -0.0056185722 1.7124561e-38
1.2919965 -0.31968382 -0.009776473 1.6663224e-38
1.2889183 -0.31605849 -0.0060817003 1.7401148e-38
1.2884127 -0.31324854 -0.0063132048 1.6663943e-38
1.2879072 -0.31043854 -0.0065448284 1.6940888e-38
1.2899691 -0.3084152 -0.010705113 1.7033443e-38
1.2894622 -0.30559799 -0.010937333 1.7217834e-38
1.4569801 -0.99964106 -0.018311501 1.7126355e-38
1.4502262 -0.99140656 -0.010340929 1.7311107e-38
1.4497005 -0.9884845 -0.010581732 1.7035239e-38
1.4491748 -0.98556244 -0.010822535 1.7127075e-38
1.448649 -0.98264039 -0.011063337 1.6665737e-38
1.4450409 -0.97712195 -0.0072278976 1.6942323e-38
1.4384036 -0.96907139 0.00062119961 1.6942323e-38
1.4318358 -0.96110541 0.008387804 1.7126355e-38
1.431317 -0.95822173 0.0081502199 1.6849409e-38
1.4307982 -0.95533794 0.0079125166 1.6941605e-38
1.4302794 -0.95245427 0.0076749325 1.7402581e-38
1.4327701 -0.95206702 0.0034425259 1.7586973e-38
1.4292418 -0.9466868 0.007199645 1.7679528e-38
1.4257317 -0.94133484 0.010936975 1.7680247e-38
1.4282041 -0.94091934 0.0067243576 1.7957554e-38
1.421724 -0.93314195 0.014418602 1.7957554e-38
1.4241793 -0.93270624 0.010226011 1.7773163e-38
1.4177369 -0.92499197 0.017881989 1.7588772e-38
1.4201757 -0.92453599 0.013709426 1.7680967e-38
1.4137708 -0.91688418 0.021327257 1.7588413e-38
1.4191433 -0.91879869 0.013236523 1.7496217e-38
1.4245723 -0.92073351 0.005060792 1.768025e-38
1.4240535 -0.91784972 0.0048232079 1.7219272e-38
1.4235348 -0.91496605 0.0045855045 1.7218912e-38
1.4260077 -0.91448009 0.00034499168 1.6942685e-38
1.4254876 -0.91158879 0.00010669231 1.6665742e-38
1.4249674 -0.90869749 -0.00013160706 1.6296961e-38
1.4244472 -0.90580618 -0.00036978722 1.5835986e-38
1.4269294 -0.90529501 -0.0046346188 1.6020376e-38
1.4234068 -0.90002358 -0.00084638596 1.6297321e-38
1.4289016 -0.9018743 -0.0091615915 1.6942689e-38
1.4253647 -0.8965981 -0.005351305 1.6942688e-38
1.4278557 -0.89606118 -0.0096406937 1.7034882e-38
1.4213262 -0.88845837 -0.0017994642 1.7127076e-38
1.4208059 -0.88556707 -0.0020377636 1.6850129e-38
1.4202857 -0.88267577 -0.0022759438 1.6388431e-38
1.4108857 -0.87290025 0.0094541311 1.5742701e-38
1.4133127 -0.87230682 0.0052485466 1.5189167e-38
1.4157524 -0.87171036 0.0010209084 1.5742701e-38
1.4152336 -0.86882657 0.00078320503 1.5927092e-38
1.4147148 -0.8659429 0.00054550171 1.6111844e-38
1.4171647 -0.86532807 -0.0037056208 1.6572822e-38
1.4136772 -0.86017549 7.0333481e-05 1.6665376e-38
1.4161242 -0.85954547 -0.0041822195 1.7034159e-38
1.4156041 -0.85665417 -0.0044205189 1.7126715e-38
1.4150839 -0.85376287 -0.004658699 1.7218909e-38
1.4175414 -0.85311425 -0.0089347363 1.7680247e-38
1.408138 -0.8435452 0.0028781891 1.7864999e-38
1.4076205 -0.84066904 0.002641201 1.7864641e-38
1.4041762 -0.83560777 0.0063807964 1.8141587e-38
1.4065857 -0.83491671 0.0021672249 1.8510011e-38
1.4090078 -0.83422208 -0.0020685196 1.8602566e-38
1.4026278 -0.82700181 0.0056716204 1.8510011e-38
1.3992054 -0.8219893 0.0093935728 1.8601848e-38
1.3986906 -0.81912816 0.0091577768 1.7956477e-38
1.3981758 -0.81626689 0.0089219809 1.7495137e-38
1.3976611 -0.81340575 0.0086861849 1.721819e-38
1.3971463 -0.81054461 0.0084503889 1.7034159e-38
1.3908774 -0.80350304 0.016075969 1.7402941e-38
1.3903652 -0.80065674 0.015841365 1.74955e-38
1.3898532 -0.79781038 0.01560688 1.7403663e-38
1.3893411 -0.79496402 0.015372276 1.7310747e-38
1.3945725 -0.79623866 0.0072715282 1.7310027e-38
1.3998587 -0.7975266 -0.00091409683 1.7585894e-38
1.4022632 -0.7967338 -0.0051579475 1.7124917e-38
1.3988237 -0.79177433 -0.0013881922 1.6663939e-38
1.3983063 -0.78889811 -0.0016251802 1.6571384e-38
1.3977889 -0.78602195 -0.0018621683 1.6664299e-38
1.4001878 -0.78519899 -0.0061085224 1.6848689e-38
1.3996691 -0.78231525 -0.0063462257 1.7218187e-38
1.3991503 -0.77943158 -0.0065838099 1.7402939e-38
1.3957191 -0.7745173 -0.0028102398 1.7586971e-38
1.3981127 -0.77366412 -0.0070590973 1.7863558e-38
1.4005188 -0.77280641 -0.011330366 1.8509288e-38
1.4029378 -0.77194428 -0.015624046 1.823342e-38
1.3994784 -0.7670238 -0.011806846 1.8510724e-38
1.407814 -0.77020603 -0.024279714 1.8419249e-38
1.4013731 -0.76324737 -0.016340733 1.860328e-38
1.4008516 -0.76034844 -0.016579628 1.8510723e-38
1.4003299 -0.75744951 -0.016818523 1.8141221e-38
1.3998084 -0.7545507 -0.017057419 1.8325252e-38
1.4051924 -0.75563455 -0.025480509 1.8048664e-38
1.4046681 -0.75272024 -0.025720596 1.8048304e-38
1.4071174 -0.75179768 -0.030086994 1.7771717e-38
1.3947967 -0.74100208 -0.013951302 1.777136e-38
1.3884746 -0.73425102 -0.0061285496 1.8139783e-38
1.3966792 -0.73715699 -0.018490791 1.7955392e-38
1.3961576 -0.73425817 -0.018729687 1.7494414e-38
1.3898115 -0.72752476 -0.010861397 1.740186e-38
1.3892927 -0.72464103 -0.0110991 1.7586251e-38
1.3916756 -0.72365427 -0.015380859 1.7033436e-38
1.3853698 -0.71699405 -0.0075507164 1.694124e-38
1.3848523 -0.71411794 -0.0077877045 1.6388424e-38
1.3786148 -0.70754194 -3.7908554e-05 1.6849043e-38
1.3809513 -0.70651841 -0.0042573214 1.7402218e-38
1.3804352 -0.70364976 -0.0044937134 1.7863917e-38
1.3770705 -0.6989584 -0.00074529648 1.8232339e-38
1.3765557 -0.69609725 -0.00098109245 1.7863555e-38
1.3760409 -0.69323611 -0.0012168884 1.7955748e-38
1.3812301 -0.69398475 -0.0094469786 1.7863551e-38
1.3807126 -0.69110864 -0.0096839666 1.7955749e-38
1.3660594 -0.67935205 0.0099157095 1.7586968e-38
1.3627665 -0.67477173 0.013588309 1.7586968e-38
1.367833 -0.67541701 0.005520463 1.7679524e-38
1.3589823 -0.66739064 0.017009497 1.712635e-38
1.3557245 -0.66286445 0.020645022 1.795611e-38
1.3579659 -0.66174179 0.016543865 1.7587327e-38
1.368589 -0.66575402 0.00063180923 1.7586966e-38
1.376573 -0.66809928 -0.01158011 1.7770997e-38
1.3732097 -0.66348863 -0.0078034401 1.7586966e-38
1.3670489 -0.65719277 -7.3671341e-05 1.7863195e-38
1.369349 -0.65604067 -0.0042821169 1.8139783e-38
1.3716613 -0.65488267 -0.0085126162 1.7863558e-38
1.3711452 -0.6520139 -0.0087490082 1.7863917e-38
1.3649951 -0.64577776 -0.0010144711 1.777208e-38
1.3729508 -0.64796621 -0.013239384 1.7680244e-38
1.3724333 -0.64508998 -0.013476372 1.7311822e-38
1.3719158 -0.64221382 -0.01371336 1.7680246e-38
1.3629414 -0.63436276 -0.0019551516 1.7495856e-38
1.3652309 -0.63315117 -0.0061684847 1.7311106e-38
1.3675325 -0.63193333 -0.010403872 1.7587691e-38
1.3614011 -0.6258015 -0.0026606321 1.7218549e-38
1.3636867 -0.62456775 -0.0068758726 1.7218187e-38
1.3631718 -0.62170649 -0.0071115494 1.6941602e-38
1.3626571 -0.61884534 -0.0073473454 1.6849047e-38
1.3621423 -0.6159842 -0.0075831413 1.6572821e-38
1.3616276 -0.61312294 -0.0078189373 1.6665018e-38
1.3583206 -0.608679 -0.0040717125 1.6757215e-38
1.357807 -0.60582525 -0.0043069124 1.6664662e-38
1.3600832 -0.60453939 -0.0085263252 1.7125641e-38
1.3567802 -0.60011774 -0.0047771931 1.6388436e-38
1.3534943 -0.59571898 -0.001047492 1.5743427e-38
1.3529822 -0.59287262 -0.0012819767 1.5190612e-38
1.3580242 -0.59309471 -0.0094695091 1.4637438e-38
1.3519579 -0.5871799 -0.0017511845 1.436157e-38
1.3459544 -0.58132607 0.0058875084 1.4086061e-38
1.3509338 -0.58148718 -0.002220273 1.4454485e-38
1.3476715 -0.57714796 0.0014930964 1.5376082e-38
1.344426 -0.57283103 0.0051875114 1.629768e-38
1.34665 -0.57146996 0.0010251999 1.6758298e-38
1.3461392 -0.56863093 0.00079131126 1.6666461e-38
1.3456284 -0.5657919 0.00055730343 1.6758655e-38
1.3478612 -0.56440902 -0.0036276579 1.639023e-38
1.3446069 -0.56011391 8.9406967e-05 1.7035239e-38
1.3413693 -0.55584091 0.0037872791 1.7311107e-38
1.3435853 -0.55443591 -0.0003786087 1.7310747e-38
1.3430744 -0.55159688 -0.00061249733 1.7863561e-38
1.3453007 -0.55017728 -0.0048005581 1.8048311e-38
1.3420529 -0.54591894 -0.0010803938 1.8325258e-38
1.3470252 -0.54589647 -0.0092456341 1.8233421e-38
1.3492732 -0.54445457 -0.013477921 1.7956835e-38
1.3459983 -0.54018897 -0.0097159147 1.8509651e-38
1.3454849 -0.53733522 -0.0099511147 1.8233064e-38
1.3477288 -0.53587103 -0.014185309 1.7956475e-38
1.3389883 -0.52888489 -0.0024842024 1.8601842e-38
1.3357652 -0.52469236 0.0012203455 1.8325256e-38
1.3325585 -0.52052152 0.0049059391 1.8417451e-38
1.3293685 -0.51637197 0.0085725784 1.8140862e-38
1.330526 -0.50922388 0.0039749146 1.8324891e-38
1.3268343 -0.50228614 0.0074118376 1.8324894e-38
1.3236669 -0.49819377 0.011062741 1.8693676e-38
1.3231614 -0.49538377 0.010831118 1.8601478e-38
1.3226558 -0.49257377 0.010599613 1.8601476e-38
1.3221503 -0.48976389 0.01036799 1.8785867e-38
1.3216448 -0.48695388 0.010136485 1.8878066e-38
1.3211392 -0.48414388 0.0099048615 1.8970263e-38
1.3259526 -0.4838042 0.0018801689 1.8878069e-38
1.3254445 -0.48097977 0.0016474724 1.8509286e-38
1.3222727 -0.4769316 0.0053224564 1.8509285e-38
1.3244282 -0.47533098 0.0011818409 1.8417089e-38
1.3265949 -0.47372195 -0.0029799938 1.8048307e-38
1.3234118 -0.46968219 0.00071632862 1.8048307e-38
1.3255761 -0.46805862 -0.0034468174 1.6480982e-38
1.3250666 -0.46522692 -0.00368011 1.7679167e-38
1.3245572 -0.46239522 -0.0039135218 1.7310023e-38
1.3240477 -0.45956358 -0.0041468143 1.7402577e-38
1.3235382 -0.45673189 -0.0043802261 1.7310021e-38
1.3257082 -0.45507082 -0.008567214 1.7494771e-38
1.3251973 -0.45223179 -0.0088011026 1.8047945e-38
1.3246866 -0.44939277 -0.0090351105 1.8140501e-38
1.3268651 -0.44770834 -0.013244867 1.795611e-38
1.3263531 -0.44486198 -0.013479471 1.8140142e-38
1.3231543 -0.4408758 -0.0097370148 1.7863555e-38
1.3307416 -0.44145197 -0.021966338 1.7402218e-38
1.3275148 -0.43745396 -0.018182278 1.7770999e-38
1.3270015 -0.4346002 -0.018417478 1.7586608e-38
1.3346587 -0.43513009 -0.030779004 1.7494054e-38
1.336892 -0.43338618 -0.035101175 1.7770639e-38
1.3363732 -0.43050244 -0.035338879 1.7863554e-38
1.3358544 -0.42761871 -0.035576582 1.8140499e-38
1.3380967 -0.42585039 -0.039922714 1.8048305e-38
1.3375765 -0.42295909 -0.040161133 1.8417088e-38
1.3426172 -0.42228565 -0.048684239 1.7864633e-38
1.3420942 -0.41937903 -0.048923731 1.8141221e-38
1.344371 -0.41757479 -0.053339839 1.8232696e-38
1.3354958 -0.41139388 -0.041114092 1.8140501e-38
1.3349756 -0.40850258 -0.041352391 1.8232338e-38
1.3400024 -0.40775266 -0.049881935 1.8047946e-38
1.3339353 -0.40271997 -0.04182899 1.7679524e-38
1.3334152 -0.39982867 -0.042067289 1.7863917e-38
1.3246955 -0.39383516 -0.030025363 1.8048667e-38
1.3161111 -0.38793483 -0.018170834 1.8417448e-38
1.315599 -0.38508847 -0.018405437 1.8417088e-38
1.315087 -0.38224211 -0.018640041 1.8417086e-38
1.3092734 -0.37744471 -0.010914207 1.8509282e-38
1.3061348 -0.37365231 -0.0071973801 1.8232694e-38
1.3056267 -0.37082794 -0.0074301958 1.7771716e-38
1.2973198 -0.36519393 0.0040700436 1.767952e-38
1.2994006 -0.36331573 -5.2452087e-05 1.767952e-38
1.2963113 -0.35958835 0.0036079884 1.7678802e-38
1.2973784 -0.35207585 -0.00097870827 1.7678804e-38
1.2917289 -0.34749302 0.0065588951 1.7678445e-38
1.2963673 -0.34645596 -0.0014419556 1.7586608e-38
1.2958617 -0.34364596 -0.00167346 1.7863197e-38
1.2953562 -0.34083602 -0.0019050837 1.7955392e-38
1.2948506 -0.33802608 -0.0021365881 1.7955754e-38
1.294345 -0.33521613 -0.0023682117 1.8324536e-38
1.2938396 -0.33240613 -0.0025997162 1.8140146e-38
1.293334 -0.32959619 -0.0028313398 1.8324538e-38
1.2902602 -0.32595488 0.00083637238 1.8139788e-38
1.2923229 -0.32397625 -0.0032944679 1.8139788e-38
1.2918173 -0.32116631 -0.0035259724 1.8046875e-38
1.2913117 -0.31835636 -0.003757596 1.7770288e-38
1.2882432 -0.31474373 -8.7499619e-05 1.7770288e-38
1.2877389 -0.31194094 -0.00031852722 1.7770646e-38
1.2897952 -0.30992648 -0.0044522285 1.749442e-38
1.2944474 -0.30869094 -0.012550831 1.7679171e-38
1.291355 -0.30508456 -0.008839488 1.7863561e-38
1.4589539 -0.99910569 -0.01612401 1.7033802e-38
1.4521894 -0.99087405 -0.0081650019 1.6573182e-38
1.454772 -0.99058414 -0.012496114 1.6757935e-38
1.451138 -0.98502994 -0.0086466074 1.6388792e-38
1.4506123 -0.98210788 -0.0088874102 1.6480626e-38
1.4500866 -0.97918582 -0.0091282129 1.6849409e-38
1.4434049 -0.97110295 -0.0012483597 1.6757213e-38
1.4367936 -0.96310532 0.0065486431 1.6756853e-38
1.4332545 -0.95769614 0.010297537 1.6480266e-38
1.4327357 -0.95481235 0.010059953 1.6941605e-38
1.4322169 -0.95192868 0.0098223686 1.7402583e-38
1.4347128 -0.95154011 0.0055955648 1.7587693e-38
1.4311792 -0.94616121 0.009346962 1.7956474e-38
1.4306604 -0.94327754 0.0091093779 1.7680247e-38
1.4331522 -0.94286621 0.0048806667 1.804939e-38
1.4266292 -0.93505824 0.012604833 1.7773163e-38
1.429104 -0.9346264 0.0083963871 1.7680967e-38
1.4226191 -0.92688191 0.016082048 1.7404022e-38
1.422103 -0.92401326 0.015845537 1.7127434e-38
1.4186298 -0.91874814 0.019541025 1.7034879e-38
1.4210707 -0.91827583 0.015372753 1.7403662e-38
1.4265099 -0.92020792 0.0072082281 1.7403302e-38
1.4259911 -0.91732413 0.006970644 1.7494778e-38
1.4254723 -0.91444045 0.0067329407 1.6481348e-38
1.4279504 -0.91395319 0.0024980307 1.7218553e-38
1.4274302 -0.91106188 0.0022597313 1.7034523e-38
1.42691 -0.90817058 0.0020215511 1.6388797e-38
1.4263898 -0.90527928 0.0017832518 1.6849779e-38
1.4288771 -0.90476668 -0.0024758577 1.6665746e-38
1.4253495 -0.89949667 0.001306653 1.7034886e-38
1.4308544 -0.90134454 -0.0069971085 1.7311472e-38
1.4273124 -0.89606977 -0.003192544 1.7127439e-38
