# .PCD v0.7 - Point Cloud Data file format
VERSION 0.7
FIELDS x y z
SIZE 4 4 4
TYPE F F F
COUNT 1 1 1
WIDTH 397
HEIGHT 1
VIEWPOINT 0 0 0 1 0 0 0
POINTS 397
DATA ascii
0.023112088 0.11309997 0.077545673
0.016598841 0.11405886 0.074568048
0.0089112557 0.11340896 0.070000388
0.045481939 0.11382672 0.080437258
0.048116013 0.12148108 0.072092086
0.055795699 0.11158437 0.07751897
0.050389599 0.11634291 0.076663837
0.053210013 0.12073535 0.067314036
0.060027886 0.11051378 0.073067293
0.037252612 0.12213138 0.074160516
0.029551577 0.12368968 0.071650445
0.036870338 0.11587143 0.078954667
0.027644373 0.11701192 0.07622759
0.041635815 0.12421913 0.070615634
0.032955173 0.12777573 0.065843984
0.043903254 0.12030249 0.076006562
0.020727348 0.12413421 0.067275122
0.012853406 0.12355535 0.06225301
0.018068496 0.11909163 0.071595356
0.009294834 0.11812884 0.066082552
0.024116928 0.12817363 0.061697159
0.015283676 0.12686414 0.056293011
0.043613754 0.12698305 0.063798577
0.03588251 0.12994826 0.058511421
0.031581827 0.13036545 0.054654963
0.017040644 0.12834261 0.049281251
0.0034790281 0.11219577 0.066128999
-0.051261272 0.13609751 0.04806675
-0.03861424 0.14539579 0.043306969
-0.044826027 0.14709996 0.042350575
-0.039017122 0.13770106 0.0445957
-0.046425384 0.13942578 0.046571746
-0.055695955 0.13623975 0.045818157
-0.052100141 0.14613616 0.037885919
-0.056227762 0.13983314 0.04041503
-0.058925379 0.13718516 0.033812784
-0.044271741 0.12520437 0.051861286
-0.050270293 0.12855503 0.050351404
-0.044274453 0.12146543 0.052154135
-0.050205957 0.12003935 0.050583895
-0.037458885 0.12770572 0.047630623
-0.044906694 0.13170835 0.049193557
-0.038606074 0.11958491 0.047916684
-0.047903214 0.11502404 0.047574736
-0.057208147 0.12954405 0.046169225
-0.055020209 0.12115388 0.046586026
-0.059933629 0.12825975 0.041273993
-0.061615523 0.12836538 0.035330929
-0.057540108 0.11869151 0.041712131
-0.061907936 0.12000093 0.035421383
-0.024757579 0.15335369 0.038107559
-0.02233446 0.15388632 0.035744786
0.0080331564 0.17146511 0.021244299
0.0066949781 0.17150502 0.020566275
0.0077741686 0.16884682 0.021578578
0.0093847979 0.15657505 0.024388522
-0.011649352 0.15471721 0.023716629
0.001668144 0.1661316 0.02122914
-0.0057746693 0.16408578 0.018552283
-1.02669e-05 0.15648286 0.023402791
-0.0093395486 0.15888396 0.021142846
-0.031373348 0.1542818 0.037928008
-0.039752718 0.15455544 0.033975616
-0.0286594 0.15618964 0.032787293
-0.037162397 0.15670265 0.028418234
-0.045224663 0.15419507 0.029378487
-0.044783961 0.15514314 0.022545932
-0.047935974 0.15373805 0.016378229
-0.015838496 0.15600681 0.020316223
-0.014898334 0.15775642 0.017351529
-0.047640901 0.15361717 0.013217196
-0.025003884 0.14704922 0.038995661
-0.024748329 0.13644671 0.040932737
-0.021040563 0.14784713 0.035915598
-0.012891147 0.1327401 0.035866499
-0.01875959 0.13756983 0.036933906
0.0073963888 0.12230977 0.057336241
0.0020966493 0.11657741 0.059690934
-0.0058153383 0.11600519 0.052719809
0.0077347867 0.12404066 0.050390746
-0.0013951845 0.12356994 0.04399395
0.0025274754 0.12098282 0.052420884
-0.003283374 0.12059566 0.048684597
-0.024846409 0.1277978 0.044395283
-0.014445569 0.11624051 0.048184618
-0.024258438 0.11771168 0.044602536
-0.010574184 0.1252411 0.039844822
-0.017192293 0.12797426 0.040740922
-0.012847293 0.12084208 0.043933794
-0.017564561 0.12087388 0.041637547
0.0073617306 0.1508033 0.021961855
-0.011998102 0.14766283 0.026725758
-0.010921106 0.13322018 0.032799989
-0.012166116 0.13885936 0.029639363
-0.0011931248 0.14897382 0.022902979
-0.0072309971 0.1466375 0.023427218
0.0095231421 0.12598516 0.043915078
0.0020400696 0.12580061 0.039539251
-0.0062435716 0.12808764 0.033644438
-0.032213282 0.14815785 0.041094165
-0.042120907 0.15176082 0.038047399
-0.031662215 0.13795592 0.041532226
-0.050619993 0.14994521 0.030780114
-0.054284941 0.14628005 0.026426991
-0.057450552 0.14021863 0.029451109
-0.049491938 0.15252103 0.022487527
-0.051966283 0.14885861 0.018596381
-0.052227397 0.13906159 0.016290372
-0.03178231 0.13044022 0.045119163
-0.032857198 0.11632825 0.043503419
-0.060747068 0.12971531 0.029056277
-0.061512176 0.11864734 0.03004206
-0.055505585 0.12890637 0.016568424
-0.05603407 0.12236801 0.015568139
-0.050909203 0.14671008 0.012397688
-0.050624359 0.13814831 0.012781238
-0.052851129 0.11787459 0.011249973
0.039547373 0.10199398 0.087608665
0.047227409 0.091518499 0.091038719
0.040577967 0.095514983 0.090536371
0.047028448 0.085814722 0.091765687
0.040031593 0.086004503 0.092565522
0.046716906 0.077511542 0.091660395
0.039655354 0.076048918 0.092655137
0.025509296 0.092958435 0.091040581
0.018715829 0.094629951 0.088924915
0.032196112 0.10472533 0.085480899
0.024015244 0.1059432 0.080796167
0.030904496 0.096664019 0.089724869
0.021925606 0.099069066 0.085702941
0.0096507128 0.095887214 0.085764527
0.0013782941 0.095600106 0.081223406
0.015176225 0.10678974 0.076514781
0.0066055525 0.10700487 0.071348697
0.013525363 0.10068228 0.079451077
0.0044284724 0.10030839 0.073680706
0.02652885 0.085552119 0.092703164
0.017598402 0.086882278 0.091885701
0.026964914 0.076607943 0.094061717
0.017094187 0.076841228 0.092287689
0.031551883 0.087642409 0.092365958
0.032476269 0.075171262 0.09390749
0.0081260521 0.0871225 0.088564076
-0.00086550415 0.087310664 0.08385548
0.007162068 0.077175386 0.089455441
-0.0011673421 0.0775095 0.084023833
0.0462167 0.066447735 0.090811953
0.040318482 0.065950744 0.090944827
0.038948394 0.056982715 0.090074524
0.036804374 0.046642005 0.086783454
0.025378974 0.067103773 0.092672288
0.016914934 0.06688457 0.091909379
0.024031915 0.058590818 0.090822622
0.017581813 0.056818016 0.090257019
0.0310765 0.065427877 0.092023492
0.029205356 0.056054603 0.090829976
0.023179863 0.052369267 0.089732841
0.0075658169 0.066990435 0.088524759
-0.00049480051 0.067378476 0.082432456
0.0081203096 0.056825612 0.086772308
0.0001998879 0.057490621 0.080510415
-0.00186361 0.052919865 0.076006696
0.01683669 0.049855161 0.088151574
0.030580373 0.046061154 0.086711064
0.020842046 0.045176186 0.085202478
0.030091172 0.039133813 0.0863996
0.020595655 0.03924242 0.083838373
0.0093922596 0.0499942 0.084622204
0.00015703216 0.047181338 0.078758851
-0.0013897121 0.040231347 0.07829418
0.010819282 0.044920981 0.080856085
0.0019307472 0.047183923 0.077170365
0.010894615 0.039645463 0.080785662
0.0034999587 0.039866399 0.079119965
0.064680651 0.092148595 0.080078512
0.052703932 0.10334004 0.083804123
0.045110852 0.10609876 0.084717929
0.052458458 0.09521009 0.087364405
0.04676827 0.098250888 0.088340782
0.057254951 0.10508417 0.080472149
0.052453447 0.10966708 0.080910549
0.060423862 0.095438376 0.082374409
0.064016454 0.084628485 0.081920967
0.073745385 0.070038304 0.083345309
0.064851046 0.074699409 0.081960052
0.053295515 0.085302211 0.088842526
0.05268316 0.075281754 0.089060888
0.060427174 0.085563034 0.0845083
0.060013395 0.075086452 0.084994107
0.068411902 0.094135053 0.07378608
0.072035819 0.094502173 0.068201259
0.063829005 0.10417922 0.073684618
0.066240638 0.098090455 0.074717931
0.069276527 0.085300647 0.07492438
0.076148376 0.070350029 0.081812397
0.070818305 0.071620397 0.078290753
0.072638005 0.083993301 0.06975399
0.036075525 0.108804 0.082817137
0.028402891 0.11001787 0.07926999
0.061762743 0.055474564 0.089721441
0.073812403 0.06420178 0.08777681
0.065853253 0.065141954 0.0858946
0.073089689 0.055149283 0.088565432
0.06675116 0.054805256 0.089951411
0.051282685 0.065733418 0.089137003
0.045957148 0.063631535 0.090613998
0.053292632 0.055102602 0.087155074
0.044198506 0.053854421 0.088358194
0.059323084 0.064736083 0.08470016
0.058127556 0.059284791 0.085678555
0.060021173 0.048272926 0.088900417
0.072951727 0.048023708 0.085466519
0.065456383 0.045500629 0.08579956
0.053764164 0.046902064 0.085783526
0.04284364 0.046001572 0.085036531
0.041322164 0.039302405 0.082329378
0.055530045 0.04196474 0.083284959
0.049417041 0.041927103 0.081071004
0.05526714 0.03875212 0.079676896
0.04880698 0.037951935 0.078127891
0.079954714 0.065480374 0.083377019
0.067697033 0.069436103 0.079255596
0.07932055 0.055365805 0.084474877
0.075166747 0.04694891 0.083436698
0.070504807 0.042949446 0.08103931
0.036627039 0.046980895 0.085933462
0.036235303 0.03803229 0.084893242
-0.0049853474 0.094493441 0.07591027
-0.0013765655 0.10652494 0.065928556
-0.0094564222 0.10451926 0.060651623
-0.0041100793 0.098190688 0.068282008
-0.011702586 0.097697183 0.06266883
-0.02002899 0.10499462 0.054500781
-0.027875852 0.10514598 0.050319314
-0.019803781 0.097831815 0.05660139
-0.029163513 0.09814588 0.052796543
-0.008177463 0.087393761 0.077321649
-0.011003371 0.0838257 0.070794463
-0.0079590492 0.077955447 0.077288628
-0.0092756152 0.090305321 0.07004039
-0.0122343 0.087722726 0.063034348
-0.0085733384 0.075510733 0.068762153
-0.011717543 0.077540465 0.061376959
-0.02053703 0.087872647 0.057517312
-0.03010219 0.088066913 0.054172881
-0.020640846 0.077635787 0.056960203
-0.029557187 0.07805261 0.052583497
-0.036034007 0.10527806 0.046095535
-0.047265876 0.11148473 0.043348648
-0.037715275 0.098251328 0.047872063
-0.044078682 0.097787924 0.042227294
-0.05406538 0.11283529 0.039661638
-0.03877664 0.088195398 0.048979335
-0.044894505 0.088965341 0.04265146
-0.037538681 0.078887209 0.047287352
-0.04318409 0.081692025 0.042810995
-0.0055819601 0.068337023 0.076642096
-0.0040036105 0.059442014 0.075990856
-0.0061623678 0.066900097 0.068216406
-0.013224404 0.068458654 0.059430338
-0.0048580877 0.057024729 0.069175504
-0.01509368 0.061414629 0.058047302
-0.01983219 0.067814924 0.056383763
-0.025650557 0.071976982 0.051904835
-0.018834312 0.060283527 0.056093428
-0.0088683628 0.045657113 0.075441465
-0.01473834 0.044431966 0.070955366
-0.0096569918 0.040557824 0.076616146
-0.01638069 0.040657997 0.071374372
-0.0061169304 0.050380025 0.070483863
-0.014192395 0.04759473 0.06442941
-0.018521938 0.04065828 0.064966172
-0.021419462 0.045729168 0.056466326
-0.031044323 0.045923028 0.053392369
-0.022490982 0.04029154 0.058323748
-0.032465544 0.040547162 0.055884361
-0.037352238 0.045631744 0.049245901
-0.0394076 0.040559053 0.050001644
-0.0022922345 0.11071084 0.061957847
-0.0089032985 0.10928726 0.057067037
-0.016621292 0.10926386 0.05288846
-0.025997262 0.11007328 0.048090681
-0.035138246 0.11005159 0.043136779
-0.043273102 0.10746838 0.037931781
-0.046582583 0.099360794 0.037340615
-0.047369879 0.10663302 0.029798968
-0.049235385 0.098381586 0.030513912
-0.04841822 0.10717259 0.022010133
-0.049128186 0.10457801 0.015831493
-0.050856862 0.098666698 0.023037663
-0.051095601 0.097980767 0.017435014
-0.047692459 0.087690309 0.037649311
-0.038932379 0.074846417 0.0430067
-0.044364367 0.077930786 0.037039552
-0.044429328 0.073967397 0.028382832
-0.049768616 0.088722147 0.031331904
-0.048205633 0.080942564 0.030369643
-0.050504018 0.088247858 0.0226153
-0.051010985 0.09074752 0.017289609
-0.046978582 0.078607768 0.023541724
-0.047122646 0.10918906 0.014278943
-0.047696222 0.10626512 0.012500316
-0.049552713 0.099885479 0.012091229
-0.047991019 0.084433034 0.014577229
-0.050393041 0.090629406 0.013456816
-0.04478601 0.07736697 0.015623979
-0.039405342 0.07561934 0.0064487495
-0.005958762 0.064567052 0.061677832
-0.0088639259 0.066636458 0.059598658
-0.0057561733 0.05694228 0.061535269
-0.010063831 0.057178222 0.057885889
-0.022793051 0.065458827 0.052314289
-0.027026519 0.067876637 0.047161989
-0.020279191 0.056384113 0.053816628
-0.024005819 0.057773221 0.046412099
-0.026840955 0.063287161 0.039172061
-0.023921698 0.059337232 0.037260957
-0.012802102 0.05074849 0.057555631
-0.019904777 0.050419994 0.054514326
-0.02690525 0.050436724 0.048057571
-0.024918798 0.051896885 0.040257882
-0.017699245 0.054944225 0.024780648
-0.017331328 0.054478504 0.020520397
-0.0181241 0.049670476 0.023815097
-0.018186372 0.050965384 0.02126893
-0.034659956 0.069469422 0.041412212
-0.040624876 0.071308583 0.03516021
-0.031987537 0.064331703 0.03336367
-0.038280126 0.067958489 0.027934598
-0.028334778 0.061408319 0.030613411
-0.032480698 0.062483646 0.025437234
-0.042400595 0.072512202 0.020766709
-0.037239913 0.046460614 0.043517493
-0.040468078 0.040923823 0.042125322
-0.039929789 0.03874857 0.03730572
-0.03668825 0.066037878 0.021429516
-0.027037442 0.05991026 0.026912525
-0.032498267 0.062392309 0.024419326
-0.016555041 0.054334652 0.015820786
-0.041745413 0.071820125 0.01739075
-0.024819788 0.045245312 0.019915124
-0.028768253 0.042928305 0.017049573
-0.029387351 0.041242581 0.019894736
-0.030615348 0.039247576 0.017922455
-0.022086475 0.04791541 0.017326094
-0.028792653 0.044187833 0.01442574
-0.031213719 0.040544875 0.013717819
0.035197724 0.18215425 0.01299881
0.035708643 0.17310883 0.014557399
0.029952258 0.16134489 0.022927411
0.029711369 0.15941559 0.023196585
0.035419676 0.1655369 0.018750135
0.032368425 0.15958239 0.021852365
0.039435904 0.18222213 0.01074224
0.041061059 0.17516778 0.012299202
0.042120565 0.16805172 0.015261017
0.022486473 0.18165295 0.017614186
0.020908892 0.18151186 0.016972702
0.021901002 0.17842861 0.018151179
0.015121631 0.17509195 0.018955776
0.029623073 0.18313728 0.01539167
0.02832621 0.17512815 0.015375163
0.020991847 0.17129572 0.016531788
0.0065353662 0.17279287 0.017500125
0.023301061 0.16297916 0.020729082
0.014358405 0.16573396 0.019056009
0.021448214 0.15814987 0.024445986
0.013364131 0.15697318 0.022969645
0.027153905 0.16723149 0.017479554
0.021090835 0.17015153 0.016549848
0.0035356134 0.16773242 0.017863473
-0.0025062487 0.16726811 0.015272323
0.0068937708 0.16098149 0.020680174
-0.014793243 0.1578538 -0.0006907396
-0.020261925 0.15861157 -0.00076426938
-0.0098087825 0.16262589 -0.0086394884
-0.015698876 0.16378838 -0.0095673017
-0.01199099 0.1603802 -0.0049421452
-0.019174788 0.16059603 -0.0068813078
-0.018821131 0.16202907 -0.015173197
-0.02115589 0.15862845 -0.011446241
-0.0065903962 0.17222351 -0.030150127
-0.0094132945 0.17163831 -0.033068795
-0.0061962493 0.16539639 -0.014998004
-0.011685833 0.16754238 -0.017715748
-0.0033696927 0.16744903 -0.020239312
-0.0092800967 0.1700369 -0.024824332
-0.016214646 0.16415659 -0.021451164
-0.018681694 0.1603447 -0.017386515
-0.012311455 0.16857889 -0.029297244
0.0090975855 0.1507443 0.021484761
0.0046245232 0.17242725 -0.03488509
-0.0014216863 0.17522541 -0.035908725
0.0057987981 0.18075612 -0.043140884
0.0092102066 0.17668027 -0.040718984
0.0036676917 0.17869183 -0.040773448
-0.0071440674 0.17444718 -0.037875917
